# .PCD v0.7 - Point Cloud Data file format
VERSION 0.7
FIELDS x y z rgb normal_x normal_y normal_z curvature
SIZE 4 4 4 4 4 4 4 4
TYPE F F F U F F F F
COUNT 1 1 1 1 1 1 1 1
WIDTH 512
HEIGHT 1
VIEWPOINT 0 0 0 1 0 0 0
POINTS 512
DATA ascii
0.52862608 0.029142231 0.012348048 4282139202 -0.44114938 0.88025904 0.17473181 0.013223371
0.52978253 0.029666737 0.012586109 4282139202 -0.41840571 0.8930257 0.16565567 0.012013544
0.55573165 0.029416906 0.012804911 4279505688 0.2867617 0.95333481 0.094448015 0.023227902
0.56590074 0.029812545 0.012979746 4283127895 0.23522651 0.96527064 0.11367104 0.01163095
0.56744826 0.029458702 0.012002662 4283325274 0.24819551 0.95858604 0.13968496 0.020438984
0.56846589 0.029168695 0.012052685 4283391067 0.2548891 0.95743215 0.1354813 0.020585379
0.56929916 0.029957883 0.012323646 4283390033 0.38787365 0.91191107 0.13406071 0.013145436
0.57021815 0.029392453 0.012406013 4283323987 0.40393066 0.90525889 0.13170588 0.012902741
0.57368147 0.029687179 0.012437535 4283785307 0.53893059 0.8319394 0.13202523 0.013416855
0.5748139 0.02933188 0.012983234 4284048735 0.55264217 0.82417685 0.12377071 0.010366891
0.5264219 0.030163918 0.012093989 4282730567 -0.49092549 0.84943455 0.19352825 0.014599048
0.52917981 0.030449314 0.012085362 4282336832 -0.45773602 0.8703177 0.18172777 0.017013041
0.53035104 0.030400567 0.012416137 4282204991 -0.41960767 0.89199823 0.16813223 0.01357442
0.53145528 0.030385152 0.012597978 4281941823 -0.38345784 0.90967786 0.15951924 0.012281996
0.53230345 0.030719906 0.012587398 4282007616 -0.36690494 0.91681153 0.15759905 0.012672737
0.53301144 0.03090322 0.012952566 4282007614 -0.34980947 0.92461616 0.15072604 0.012264899
0.5615077 0.030887082 0.012604311 4282862667 0.19490753 0.97171551 0.1333416 0.011924344
0.56292963 0.030591935 0.012770832 4282929233 0.20506829 0.97049266 0.12685049 0.011558086
0.56393707 0.030300051 0.012818426 4283060819 0.21310148 0.96904498 0.1246583 0.011946058
0.56488919 0.030103892 0.01293081 4283258198 0.22337334 0.96723288 0.12068538 0.011777886
0.56841379 0.030415187 0.012178708 4283324240 0.37693253 0.91635245 0.13498195 0.013360525
0.57124007 0.030936047 0.01249408 4283522139 0.49975726 0.8562302 0.13081525 0.012217479
0.57243717 0.030390061 0.012613787 4283587930 0.517901 0.84537023 0.13087299 0.013316866
0.57344496 0.03059537 0.012879162 4284245602 0.54177141 0.83122247 0.12471168 0.0095337508
0.57455629 0.030201947 0.012213774 4283587414 0.61056656 0.77915931 0.14184247 0.025787516
0.52795374 0.031417426 0.012246946 4282533441 -0.45941928 0.86725569 0.19183719 0.015509358
0.53210604 0.031519517 0.012144003 4282270527 -0.38789344 0.90482789 0.17557082 0.015159088
0.53333664 0.031532459 0.012316903 4282138943 -0.34863487 0.9224174 0.16613209 0.014708358
0.53470707 0.031572849 0.012930796 4282007614 -0.3064799 0.93896794 0.15623467 0.013398699
0.53539121 0.031870723 0.012295559 4281941821 -0.29025489 0.94155908 0.17093468 0.016820189
0.55798078 0.031960577 0.012479305 4282139966 0.16380917 0.97587049 0.14437233 0.012403601
0.55903363 0.031571478 0.012458637 4282336832 0.17500532 0.97429305 0.14186706 0.012413247
0.56003284 0.031278372 0.01250346 4282598981 0.18281589 0.97332823 0.138602 0.012040634
0.56413507 0.031921431 0.012122108 4282666315 0.30348366 0.9429673 0.13678566 0.011951538
0.56536084 0.031559732 0.012527416 4282797896 0.32206282 0.93814218 0.12714107 0.010406457
0.56620967 0.031210672 0.012734524 4283061068 0.33985794 0.93279147 0.11998636 0.0095489211
0.56928062 0.031863518 0.012684884 4283258966 0.45682886 0.88034213 0.12769178 0.011562028
0.57042742 0.031339139 0.012664668 4283522137 0.47796655 0.8687591 0.12963696 0.012537005
0.57260185 0.031262226 0.012283219 4284179809 0.52068365 0.84178752 0.14241607 0.012480083
0.52917218 0.032540232 0.012156493 4283256395 -0.43861929 0.85800683 0.26727802 0.04050272
0.5344584 0.032436665 0.012359655 4282139202 -0.32750711 0.93019587 0.16575517 0.013541006
0.53661811 0.032248914 0.012433961 4281941821 -0.25692493 0.95146513 0.16942176 0.016564511
0.53749132 0.032535493 0.012390003 4282072637 -0.23615199 0.95587158 0.17476207 0.017400425
0.53819835 0.032718599 0.012754783 4282138430 -0.21669212 0.96162361 0.16829914 0.015402543
0.53933984 0.032915592 0.012169778 4282006844 -0.18494852 0.96539378 0.18387215 0.018624391
0.54090714 0.032991737 0.012702569 4282138434 -0.14904797 0.97489947 0.16539584 0.014839043
0.54176831 0.032884955 0.012870759 4282203198 -0.12930006 0.97878897 0.15891407 0.013724937
0.54347742 0.032789767 0.012205318 4282130724 -0.088565186 0.98174679 0.16831361 0.015921289
0.54469717 0.032775551 0.012556985 4281799443 -0.0587257 0.98615801 0.15506013 0.013268295
0.54551119 0.032766253 0.012791604 4281603347 -0.040168237 0.98779577 0.15048599 0.012120811
0.54671896 0.032871932 0.012139365 4281275152 -0.012994844 0.98612607 0.16548897 0.01540006
0.54753518 0.03286317 0.012374356 4281605914 0.0050591128 0.98732173 0.15865122 0.01413874
0.548352 0.032854438 0.012609482 4281148193 0.018762359 0.98824906 0.15169632 0.012723086
0.54911608 0.032942086 0.012909934 4281345572 0.034272857 0.98933172 0.14159159 0.010883533
0.55038512 0.032954246 0.012191832 4281741877 0.055661783 0.98535502 0.16117479 0.014895135
0.55120486 0.032946229 0.012427464 4281941821 0.069750533 0.98561776 0.15392382 0.01371247
0.55251735 0.032790378 0.012683615 4282138942 0.092217483 0.98513955 0.14490002 0.011828804
0.55423421 0.032754153 0.012050152 4282139966 0.11671111 0.97954619 0.16391414 0.016533656
0.55511332 0.032651186 0.012221664 4282074173 0.12788112 0.97899044 0.15882108 0.015243499
0.55651748 0.032353491 0.012382351 4281811514 0.14926162 0.97732401 0.15019584 0.013308869
0.56058794 0.032750331 0.012536297 4281943876 0.25544351 0.95804691 0.12997977 0.0092914654
0.56244648 0.032273076 0.012623175 4282469452 0.28188089 0.95152074 0.12309173 0.0088171652
0.56326151 0.032032087 0.012892975 4282601038 0.2939204 0.94871956 0.11636962 0.0078452881
0.56820238 0.032359689 0.012800068 4283127637 0.43928334 0.88950026 0.12577496 0.012198845
0.56993812 0.032754444 0.012819102 4284046427 0.46321782 0.87608439 0.1338111 0.0099854004
0.57055247 0.032449786 0.012255292 4283981405 0.47483841 0.86774904 0.14676598 0.01210358
0.53128177 0.033584815 0.012066748 4283190342 -0.28828073 0.93438447 0.20933197 0.023057148
0.53320086 0.033936359 0.012495734 4283190596 -0.26611537 0.94519651 0.18917228 0.016869076
0.53610194 0.033109576 0.0120187 4282007357 -0.28441426 0.94298846 0.17286244 0.014933353
0.53700811 0.033410784 0.012157161 4282138683 -0.26157749 0.94982201 0.17150894 0.014563405
0.53806168 0.033749912 0.012975629 4282270269 -0.23493549 0.95946705 0.15565442 0.011636266
0.54009795 0.033001989 0.012469023 4282072641 -0.16981356 0.97007412 0.17354991 0.016532509
0.55584919 0.033940662 0.012547493 4282139713 0.17083074 0.97515035 0.14106293 0.010811625
0.55662948 0.033807851 0.012879692 4281942336 0.18482117 0.97359574 0.13398725 0.0094496552
0.55792367 0.033468004 0.012181398 4281614139 0.20996757 0.96721065 0.14288899 0.011141184
0.55913985 0.033106938 0.012584823 4281812289 0.2323128 0.96363056 0.13208716 0.009188748
0.56426358 0.033965953 0.012127021 4282797901 0.40490052 0.90344536 0.14086166 0.019055201
0.56531996 0.033639055 0.012700291 4282732619 0.39596441 0.90957594 0.12603116 0.015851442
0.56629646 0.033204153 0.012440417 4282929485 0.42875701 0.8935858 0.13293564 0.018926723
0.56740409 0.033096675 0.01270579 4283258452 0.41411418 0.90068573 0.13143344 0.011243867
0.56831199 0.033527102 0.012420947 4283192403 0.45924604 0.8776567 0.1371561 0.01908946
0.56945163 0.033122007 0.012466537 4283652692 0.44992134 0.88180965 0.14135925 0.01153657
0.53024495 0.034218781 0.012476052 4283125061 -0.29148224 0.93178552 0.21636504 0.023966543
0.53148025 0.03443604 0.012098376 4282401598 -0.38761246 0.90019876 0.19849119 0.020316217
0.53562045 0.034673683 0.012248216 4282731590 -0.22225197 0.95564562 0.19324997 0.016987083
0.53950298 0.034161311 0.012343691 4282204732 -0.1986654 0.96557462 0.16792187 0.013487796
0.54142129 0.034519255 0.012509126 4281876279 -0.15139632 0.97468561 0.16452117 0.013182807
0.54368234 0.034876402 0.012290273 4282857266 -0.09875796 0.98027736 0.17118223 0.015448622
0.54635298 0.034915533 0.012641565 4281996312 -0.037922613 0.98653704 0.1590801 0.0137359
0.54807657 0.034869056 0.012982508 4281603613 0.0042248075 0.98820317 0.15309082 0.012601038
0.5490756 0.034739684 0.012864333 4281865756 0.02675887 0.98808497 0.15156578 0.012364071
0.55027395 0.034721795 0.012359311 4281735453 0.051394019 0.98600817 0.15857705 0.014265717
0.55102509 0.03469678 0.012754993 4281412912 0.068422563 0.98625553 0.15039472 0.012335171
0.55252898 0.034503341 0.012576601 4282070585 0.1001816 0.98356777 0.15019377 0.012386268
0.55378234 0.034413755 0.012913021 4282074173 0.12698112 0.98181152 0.14114541 0.010592924
0.55423498 0.034421589 0.012011078 4281876794 0.1376123 0.97757107 0.15942894 0.014307185
0.55504179 0.03418117 0.012279212 4281942587 0.1540864 0.97656083 0.15028793 0.012509379
0.5591442 0.034184504 0.012058762 4281350967 0.33581963 0.92743659 0.16458009 0.042052902
0.5604673 0.03452744 0.012933774 4281942847 0.38120899 0.9171803 0.11601754 0.026551489
0.56114262 0.03499978 0.012977807 4282469449 0.36497289 0.92368269 0.11664125 0.028962888
0.56209981 0.034895178 0.012860639 4282337350 0.31886801 0.93921041 0.12730658 0.012504704
0.56332517 0.03433894 0.012670616 4282600779 0.3675369 0.92122114 0.12754709 0.015057469
0.564098 0.03408828 0.012886981 4282667087 0.36106947 0.92416888 0.12466285 0.0148059
0.56574863 0.034837816 0.012515014 4283323989 0.36499125 0.91901696 0.14896068 0.01247057
0.56734073 0.034115426 0.012273883 4283521112 0.40261504 0.90270311 0.15175071 0.01255496
0.53247607 0.035075113 0.01266754 4282466876 -0.36856219 0.91107988 0.1846492 0.018768366
0.53341335 0.035286643 0.012966324 4282401595 -0.35410878 0.91941303 0.17113359 0.016839862
0.53443843 0.035600003 0.012263043 4282270269 -0.32630044 0.92623335 0.18873192 0.021231195
0.53613919 0.0357638 0.012024917 4282138687 -0.28764501 0.93982637 0.18435484 0.021178046
0.53737342 0.035628688 0.012086287 4282336577 -0.22713916 0.95587528 0.18630674 0.018723141
0.53817952 0.035907771 0.012053635 4281941821 -0.23831797 0.95481765 0.17756046 0.018789794
0.53988093 0.035946611 0.012758304 4282730818 -0.16326745 0.97222966 0.16767035 0.01345581
0.54557741 0.03504828 0.012309874 4282062105 -0.053304039 0.98393917 0.17035951 0.015800072
0.54714733 0.035017677 0.012002971 4281932833 -0.019229732 0.98456413 0.17396498 0.017457668
0.55904835 0.035690855 0.012995508 4281810742 0.28488246 0.94991404 0.12847283 0.021199677
0.56024873 0.035304178 0.01294897 4282204990 0.31317717 0.94156879 0.12396889 0.017066546
0.5611279 0.035183534 0.012047136 4282468677 0.34444046 0.92748362 0.14537863 0.023759333
0.56295031 0.035920028 0.012700814 4283060817 0.30091962 0.94209909 0.1479754 0.012653923
0.56458408 0.035317015 0.012562234 4283126610 0.33819139 0.92938018 0.1479158 0.01257842
0.56522769 0.035110634 0.012080292 4283323989 0.35115924 0.9225511 0.15995859 0.014779988
0.53055 0.036253579 0.012057588 4282666562 -0.2527532 0.92923063 0.26952973 0.036352761
0.5404225 0.03626252 0.01212169 4282336063 -0.16784267 0.96975648 0.17720369 0.016617786
0.54226857 0.036626302 0.012896037 4282729022 -0.13663992 0.97885907 0.15219858 0.012048253
0.54486543 0.036562826 0.012750179 4282328355 -0.088461906 0.98472023 0.15000193 0.013115442
0.54608411 0.036962952 0.012973544 4282127636 -0.059695225 0.98740977 0.14648749 0.011376887
0.54987049 0.036850568 0.012890756 4282133551 0.10064016 0.98619723 0.13147832 0.03014845
0.55145711 0.036790632 0.012439488 4282135861 0.10357282 0.98298627 0.15169264 0.021985417
0.55241573 0.036738545 0.012793858 4281942335 0.086547807 0.98453397 0.15232363 0.011517067
0.55548131 0.036606889 0.012912638 4282204992 0.22533642 0.96461427 0.13690466 0.025933325
0.55652964 0.036510263 0.012811841 4282402371 0.24326272 0.96008903 0.13803035 0.025454095
0.55749774 0.036309417 0.012700523 4282139454 0.26207834 0.95494497 0.13926613 0.024577655
0.55844665 0.036012493 0.012793922 4280099868 0.21743406 0.96617639 0.1386562 0.010130977
0.55928087 0.036052272 0.012203005 4282007865 0.27798429 0.94848228 0.15200737 0.021254364
0.56101859 0.03656587 0.012540966 4282927948 0.25689203 0.95397341 0.15473005 0.014030737
0.54309952 0.03706719 0.012157671 4282333501 -0.12015554 0.97780794 0.17162244 0.015324922
0.54412037 0.037064962 0.012987582 4283446073 -0.10034014 0.98383325 0.14833778 0.01096198
0.54542637 0.037068553 0.012410907 4281799962 -0.071433403 0.98418468 0.16210437 0.013795461
0.54692519 0.037089262 0.012140583 4281996565 -0.043960977 0.98475558 0.16829701 0.015838303
0.54843634 0.037260942 0.012948977 4281999391 0.030593645 0.99013424 0.13674147 0.026084766
0.55385768 0.03796681 0.012536818 4282200890 0.088781632 0.98185092 0.16759099 0.01757271
0.55482149 0.037762538 0.012393016 4282204481 0.11135828 0.97904599 0.1704945 0.018378759
0.55558622 0.037567981 0.012579604 4282535241 0.12935394 0.97789705 0.16427137 0.016673122
0.55782717 0.037165247 0.012631254 4282206781 0.18529373 0.9697156 0.15911612 0.015528507
0.54786205 0.038307555 0.012045367 4280953131 0.11465818 0.97548419 0.18784046 0.053193524
0.54939473 0.038346119 0.01224949 4282000934 0.075445756 0.98247349 0.17045149 0.037415944
0.55233037 0.038325701 0.012957687 4282199600 0.054463014 0.9854694 0.16088513 0.016148727
0.55663419 0.038345385 0.012611588 4282139198 0.30441377 0.93941957 0.15755376 0.040572647
0.54175323 0.039385721 0.012861571 4282139202 -0.096484385 0.98037761 0.17190297 0.069060624
0.54239482 0.039503466 0.012076717 4282008130 -0.066581935 0.9784745 0.19533195 0.077784598
0.54988158 0.039176524 0.01269231 4280887595 0.17169479 0.97124881 0.16491443 0.047784183
0.55687505 0.039359044 0.012987096 4281745216 0.32226714 0.93247557 0.16319686 0.042130522
0.55115414 0.040742978 0.012313692 4282205246 0.24665314 0.95060098 0.18846785 0.068792135
0.5555051 0.040035725 0.012333878 4280693041 0.28881809 0.93607759 0.20085506 0.055180643
0.54089338 -0.065393455 0.01344597 4294901502 -0.20513931 -0.97063231 0.1256614 0.013280313
0.5420295 -0.065440387 0.013930854 4294901502 -0.18896475 -0.97594839 0.10870628 0.010043116
0.55104399 -0.065043904 0.013504547 4294901502 -0.052190684 -0.99385232 0.097640909 0.0070876153
0.5523116 -0.065566771 0.013217404 4294901502 -0.045146476 -0.99267519 0.11206184 0.011025584
0.53678179 -0.064265214 0.013700066 4294901502 -0.27183884 -0.95299846 0.13378215 0.013872902
0.53799343 -0.064783454 0.013430929 4294901502 -0.24931002 -0.95883012 0.13597588 0.014765128
0.54559201 -0.064438492 0.013534428 4294901502 -0.13708091 -0.98552668 0.099729441 0.008250257
0.54721856 -0.064088844 0.013232017 4294901502 -0.10853664 -0.98949438 0.095502824 0.0073075881
0.54887372 -0.064255573 0.013118427 4294901502 -0.084647775 -0.99161744 0.09761937 0.0067718537
0.53397876 -0.063057154 0.013866229 4294901502 -0.32507956 -0.93515223 0.14076138 0.014472096
0.53517824 -0.063581899 0.013379196 4294901502 -0.29721567 -0.94405097 0.14293563 0.015625345
0.53276759 -0.062565543 0.013242474 4294901502 -0.35536149 -0.92165214 0.15580618 0.016998308
0.53127998 -0.061778326 0.013512338 4294901502 -0.39975038 -0.90372938 0.15320873 0.015353009
0.52971286 -0.060888398 0.013921803 4294901502 -0.45279846 -0.87993056 0.1438601 0.012106387
0.5399031 -0.060049988 0.013252219 4294901502 -0.2071159 -0.97034293 0.12465037 0.011488458
0.54731715 -0.060176045 0.013125148 4294901502 -0.078786299 -0.99002498 0.11680441 0.010505505
0.55094194 -0.0607161 0.013837862 4294901502 0.015954839 -0.99495584 0.099037059 0.0092827361
0.55289078 -0.060093142 0.013081028 4294901502 0.02314182 -0.99305809 0.11532594 0.012572453
0.52643538 -0.059274431 0.013509467 4294901751 -0.52789152 -0.83521646 0.154091 0.012000703
0.53887874 -0.059869684 0.013581088 4294901502 -0.22718278 -0.96651316 0.11933289 0.010282503
0.54057574 -0.059498411 0.013558265 4294901502 -0.20459014 -0.97200143 0.11556855 0.0090052756
0.54196984 -0.059649866 0.01339921 4294901502 -0.17956311 -0.97717297 0.11353449 0.0088884216
0.54295349 -0.059831247 0.013375174 4294901502 -0.15995456 -0.98034483 0.11549278 0.0094149057
0.54452735 -0.059889339 0.013460986 4294901502 -0.1323119 -0.98520935 0.10888663 0.0082662627
0.5460465 -0.059905138 0.013303274 4294901502 -0.10844909 -0.98796296 0.11030896 0.0088933315
0.54806203 -0.059812784 0.013217194 4294901502 -0.083852395 -0.99026293 0.11112195 0.0094278539
0.54909921 -0.059294436 0.013824211 4294901499 -0.060560625 -0.99311852 0.10024002 0.0070136832
0.55017096 -0.059327323 0.013189575 4294901499 -0.0393367 -0.99286574 0.11256232 0.010018343
0.55176151 -0.059357487 0.013241639 4294901499 -0.0075790146 -0.99427682 0.10656507 0.010180467
0.55671483 -0.05923418 0.013815573 4294835964 0.077579781 -0.99311513 0.087771565 0.0075931605
0.52518636 -0.058553208 0.013709798 4294901746 -0.55619121 -0.81726593 0.15075749 0.011042213
0.53549361 -0.058547039 0.013553685 4294901502 -0.30701381 -0.94324487 0.12661602 0.01041218
0.53681326 -0.058506913 0.013569861 4294901502 -0.27529338 -0.95356202 0.12220071 0.0093494887
0.53943759 -0.058387663 0.01376404 4294901499 -0.23714228 -0.96487886 0.11301533 0.0081659295
0.5413757 -0.058721691 0.013429303 4294901499 -0.19987322 -0.97288483 0.11638656 0.0085242987
0.54278892 -0.058142528 0.013428917 4294836217 -0.18516742 -0.97579575 0.11634336 0.0081638778
0.54463172 -0.058375038 0.013509048 4294836217 -0.14628358 -0.98285538 0.11223385 0.0078933015
0.54705107 -0.058576476 0.013177762 4294836217 -0.099492051 -0.98827523 0.11581686 0.00842945
0.54815316 -0.058792114 0.01321757 4294836217 -0.076515853 -0.9903717 0.11536606 0.0092225671
0.54906988 -0.058299836 0.013000348 4294770681 -0.045742922 -0.99238795 0.11434059 0.0089499662
0.55018348 -0.058240555 0.013458992 4294770681 -0.02997878 -0.99465179 0.098838478 0.0089675877
0.55190009 -0.058330696 0.01300476 4294770681 0.00055909849 -0.99446368 0.10507969 0.011202678
0.55303609 -0.058708269 0.013898144 4294770681 0.028091202 -0.9953745 0.091872588 0.009492225
0.55405802 -0.058817223 0.013043224 4294770426 0.040818736 -0.99352878 0.10599236 0.011092744
0.55512774 -0.058464311 0.01356397 4294770425 0.061707977 -0.99362713 0.094325848 0.009877
0.55966997 -0.058651388 0.013706656 4294770681 0.14637713 -0.98577178 0.082630195 0.010223724
0.53378326 -0.057965029 0.013558516 4294901502 -0.34161329 -0.93117726 0.12731528 0.010525403
0.53638601 -0.057017211 0.013897441 4294901753 -0.31926191 -0.94039673 0.11715768 0.0083358251
0.53799325 -0.057555139 0.013319224 4294901753 -0.28432426 -0.95010334 0.12830956 0.010278585
0.54090202 -0.057785966 0.013383575 4294836217 -0.229809 -0.96585423 0.11963926 0.0087012202
0.54206389 -0.057668582 0.013479186 4294770681 -0.20784231 -0.97124535 0.1161206 0.0083978977
0.54735273 -0.05701001 0.013127655 4294770681 -0.12414818 -0.98767817 0.095285147 0.0075509762
0.5486775 -0.057017107 0.013433372 4294770681 -0.093809828 -0.99172986 0.087588683 0.0066245925
0.55162656 -0.057081364 0.013236583 4294770681 -0.02293279 -0.99569988 0.089754909 0.0075121117
0.55522281 -0.057007935 0.013737354 4294770682 0.065362215 -0.9944818 0.082059547 0.0067309048
0.55715013 -0.057988197 0.013759134 4294770681 0.099614933 -0.99108237 0.088502087 0.010164454
0.53004003 -0.056032997 0.013921948 4294901502 -0.43159157 -0.89316851 0.12640707 0.0094261989
0.53109139 -0.056444004 0.013882127 4294901502 -0.41143867 -0.90265244 0.12624136 0.0096314717
0.53270602 -0.056945112 0.013796166 4294901502 -0.37228179 -0.91958505 0.12557715 0.0094073806
0.5347681 -0.056422818 0.013620289 4294901753 -0.35508659 -0.92603743 0.12793863 0.0096717328
0.53730714 -0.056217384 0.013448535 4294836217 -0.32683641 -0.93718028 0.12194719 0.0085129794
0.53910625 -0.056832258 0.013401772 4294770681 -0.28278372 -0.9515664 0.12064353 0.0085460823
0.54218596 -0.056113563 0.013806682 4294704626 -0.24238905 -0.96597695 0.090200916 0.0066463859
0.54332864 -0.056392875 0.013745335 4294836214 -0.21667835 -0.97219622 0.088797346 0.0067140423
0.54490691 -0.056707121 0.01361575 4294770679 -0.17957389 -0.97971368 0.088963032 0.0067155561
0.54611737 -0.056885324 0.013018142 4294770681 -0.15304549 -0.98327386 0.098740548 0.0079673845
0.55829042 -0.05677367 0.013646863 4294770682 0.13465874 -0.98765069 0.080082737 0.0065956321
0.56016278 -0.056930121 0.013384052 4294770682 0.16344237 -0.98281515 0.085796639 0.009011928
0.56127644 -0.05670058 0.013328384 4294770682 0.18749754 -0.97845209 0.086465254 0.0094224615
0.56279498 -0.05640617 0.013939245 4294770681 0.22369184 -0.97177899 0.074883938 0.009654318
0.56373578 -0.056111865 0.013181196 4294770682 0.24276631 -0.96616894 0.087075107 0.010096991
0.52898079 -0.055633944 0.013441039 4294901502 -0.45703471 -0.87874395 0.13758081 0.011765376
0.53324747 -0.055894285 0.013190434 4294901753 -0.39005429 -0.91021866 0.1391394 0.010771044
0.53489619 -0.055138379 0.013622276 4294901753 -0.38327405 -0.91601211 0.11841819 0.0080660926
0.53598791 -0.055670876 0.013605487 4294901753 -0.36111832 -0.92491913 0.11882002 0.0078319563
0.5397768 -0.055281613 0.013785181 4294704118 -0.29334125 -0.95131671 0.094591148 0.0067712246
0.54105312 -0.055722147 0.01379682 4294770420 -0.26756555 -0.95919895 0.091356799 0.0066185566
0.54442734 -0.055083103 0.01330613 4294769909 -0.18195896 -0.97702163 0.11099476 0.010272422
0.5456596 -0.055366017 0.013314325 4294572531 -0.15510088 -0.98191237 0.10859022 0.010077924
0.54784852 -0.055780772 0.013369084 4294704373 -0.10428783 -0.98898661 0.10502226 0.0094973417
0.54896188 -0.055894174 0.013083256 4294704371 -0.077252299 -0.99104923 0.10887383 0.010177099
0.55122077 -0.055967242 0.013443394 4294769912 -0.028081112 -0.99475944 0.098311618 0.0084246835
0.55231738 -0.055919636 0.013477428 4294638583 -0.0048682922 -0.99542904 0.09538015 0.0080106445
0.55340225 -0.055876963 0.013349378 4294901754 0.022753496 -0.9951601 0.095596388 0.0080950456
0.55461371 -0.055792172 0.013197817 4294901753 0.051289555 -0.99436486 0.092778862 0.0079673938
0.55611259 -0.055710111 0.01322921 4294901753 0.082639746 -0.99271959 0.087627456 0.0073512881
0.55796683 -0.055500552 0.013160524 4294835961 0.12464402 -0.98850721 0.085541829 0.0072265058
0.56474829 -0.055807844 0.013829893 4294770682 0.26863629 -0.96004933 0.078356698 0.0088949725
0.56664437 -0.055290546 0.013078162 4294770681 0.29296646 -0.95186263 0.090156138 0.011850953
0.53031427 -0.054471195 0.013675386 4294901753 -0.45842376 -0.87878728 0.13259172 0.0099222548
0.53399438 -0.054827064 0.013041355 4294901753 -0.40506274 -0.90537393 0.12736717 0.0095196739
0.53729892 -0.054345038 0.013019224 4294704119 -0.34697363 -0.93121302 0.11158658 0.0080959378
0.53814453 -0.054670077 0.013969537 4294704118 -0.33029267 -0.93897897 0.096048146 0.0066371765
0.54015642 -0.054039791 0.013493499 4294440689 -0.27526477 -0.95566094 0.1046021 0.0082366904
0.5413326 -0.054263014 0.013399031 4294703347 -0.24952132 -0.96250194 0.10643911 0.0089297863
0.54264319 -0.054642376 0.013369681 4294703603 -0.22255993 -0.96852887 0.11144071 0.0098243868
0.5476988 -0.054129805 0.013080493 4294831857 -0.075344294 -0.99230087 0.098297656 0.010521237
0.54903632 -0.054233924 0.013806338 4294831859 -0.053645689 -0.99578983 0.074329726 0.0067842607
0.55009753 -0.054247703 0.013025766 4294635764 -0.02982652 -0.99516177 0.093613841 0.010140492
0.55183589 -0.054301493 0.013420478 4294569715 0.0025821335 -0.9967438 0.080592081 0.008448258
0.55306286 -0.054253776 0.013323309 4294766836 0.030199913 -0.99625593 0.081007831 0.0088101467
0.55477816 -0.054095805 0.013175765 4294700787 0.068755992 -0.99422842 0.082356595 0.0093046837
0.5551849 -0.05402245 0.01376191 4294634993 0.077077478 -0.99467039 0.068482868 0.0071835993
0.56200618 -0.054888058 0.013470117 4294507502 0.21697406 -0.97310495 0.077389076 0.0063865664
0.56304514 -0.054619279 0.013334077 4294441969 0.24267405 -0.96695155 0.078193165 0.0065860315
0.56482732 -0.0542018 0.013048267 4294440691 0.28527743 -0.95471829 0.084437847 0.0076527968
0.56854326 -0.054350782 0.013417278 4294705145 0.34158206 -0.93621248 0.082631432 0.010527448
0.57021624 -0.054338828 0.013810915 4294507766 0.31936404 -0.94393802 0.083591431 0.01570202
0.51879108 -0.053841997 0.013266146 4294765778 -0.68404508 -0.70893365 0.17174254 0.015299349
0.52398932 -0.053003136 0.013495092 4294901502 -0.56866693 -0.81037265 0.14111783 0.01168518
0.52511162 -0.053140514 0.013064887 4294901502 -0.54794705 -0.82263219 0.15175791 0.013651605
0.52612466 -0.05356117 0.013049672 4294901502 -0.52878505 -0.83510846 0.15159227 0.013816845
0.52828926 -0.053410787 0.013237718 4294901753 -0.50683576 -0.85010266 0.14297892 0.011500006
0.52937061 -0.053895731 0.013828895 4294901753 -0.48315966 -0.86571646 0.13073559 0.0094516892
0.53561187 -0.053596802 0.013531866 4294374892 -0.38608652 -0.91599596 0.10903518 0.006816302
0.53797966 -0.053291902 0.013482194 4294570993 -0.3183192 -0.9411276 0.11380586 0.0091543142
0.53894526 -0.053672634 0.013650371 4294769396 -0.30017021 -0.9481675 0.10428931 0.0078982431
0.5419082 -0.053113259 0.013442231 4294633970 -0.18598902 -0.97754616 0.099053562 0.010803036
0.54312551 -0.053386163 0.013300482 4294633965 -0.16146041 -0.98157853 0.10214772 0.011023877
0.54418629 -0.053450841 0.013292173 4294568172 -0.14317749 -0.98483247 0.098006845 0.010307922
0.546175 -0.053761486 0.013581226 4294832366 -0.10983729 -0.99014455 0.086888269 0.0088608041
0.55619097 -0.053940795 0.013582335 4294634992 0.10024673 -0.99244815 0.070691757 0.0076664663
0.55740809 -0.053859938 0.013384667 4294767087 0.12755994 -0.98919469 0.072266564 0.0080981115
0.55884212 -0.053672913 0.013919735 4294569460 0.15829356 -0.98532796 0.063811682 0.0071866787
0.56013089 -0.053498603 0.013431457 4294503665 0.18765795 -0.97986174 0.068231225 0.0078181718
0.56211305 -0.053032689 0.013807533 4294767092 0.22971839 -0.97132534 0.061290186 0.0071551092
0.56658322 -0.053621214 0.013417964 4294375409 0.3325339 -0.9402824 0.072733551 0.0089464486
0.56910938 -0.053710375 0.013379559 4294770681 0.38731849 -0.91862237 0.078213453 0.0070358058
0.57152033 -0.053606622 0.013819088 4294046447 0.35295632 -0.93234116 0.078496501 0.016716123
0.517811 -0.052582256 0.013364688 4294829518 -0.71064281 -0.68280232 0.16961075 0.014487328
0.52288437 -0.052192032 0.013186565 4294901502 -0.59129786 -0.79244208 0.14967452 0.012452502
0.52605534 -0.052069031 0.013188858 4294901751 -0.56110436 -0.81521994 0.14345142 0.011259727
0.52734613 -0.052836005 0.013390468 4294901753 -0.53349966 -0.83426321 0.13922308 0.010675837
0.52871764 -0.052032668 0.013109082 4294901753 -0.52844393 -0.83890754 0.13031226 0.0079992218
0.53421021 -0.052952498 0.013128204 4294506479 -0.41433191 -0.90215683 0.12017609 0.0081683192
0.53515381 -0.052183665 0.013844503 4294110962 -0.37787941 -0.91931176 0.10987783 0.0076404065
0.536937 -0.052866254 0.013666624 4294307568 -0.33877727 -0.93444324 0.10975416 0.0083447443
0.53913313 -0.052165475 0.013660121 4294633198 -0.24839769 -0.96434432 0.091316074 0.010666692
0.54103863 -0.052888803 0.013252961 4294437618 -0.2046005 -0.97292948 0.1074562 0.012725704
0.54683739 -0.052438743 0.013361064 4293714919 0.059750319 -0.99516827 0.07791023 0.0080818068
0.54854816 -0.052500173 0.013467079 4293979117 0.068259686 -0.99489689 0.074301936 0.0074122362
0.54965544 -0.052365452 0.013546826 4293715430 0.077843472 -0.99444336 0.070872784 0.0068293484
0.55120349 -0.052083328 0.013065162 4294306537 0.10248111 -0.99178791 0.076514445 0.0083495695
0.55364168 -0.052077316 0.013460827 4293911782 0.13767265 -0.9878729 0.071788363 0.006205909
0.55487782 -0.052197207 0.013819629 4294174439 0.15271088 -0.98592275 0.068085589 0.0051298942
0.55651397 -0.052576113 0.013302835 4294240493 0.18211976 -0.97994775 0.080838531 0.0072495388
0.55797672 -0.052528858 0.013878745 4294043634 0.19581425 -0.97814506 0.069921918 0.0054755509
0.55916822 -0.052322276 0.013725964 4294174707 0.21677646 -0.97379839 0.068735741 0.0054988782
0.56021768 -0.052030366 0.013695808 4293978350 0.23229873 -0.97037786 0.066364221 0.0055073206
0.56398576 -0.052878834 0.013313908 4294703094 0.30600399 -0.94914353 0.074082904 0.0080316383
0.5650478 -0.052264992 0.013136672 4294438384 0.29950362 -0.95168161 0.067821719 0.0073374989
0.57159752 -0.052602295 0.013782379 4294705144 0.42841095 -0.9006387 0.072897509 0.0054016579
0.52191579 -0.051466264 0.013278269 4294901502 -0.61523759 -0.77419251 0.14869013 0.012042864
0.53156358 -0.051505532 0.0132879 4294570484 -0.47704631 -0.87025845 0.12278898 0.0078955572
0.53375179 -0.051585078 0.013887982 4294044653 -0.40307242 -0.90837169 0.11132637 0.0078780111
0.53633493 -0.051291168 0.013246953 4294239196 -0.27681819 -0.95416766 0.11373562 0.014282108
0.53816819 -0.051811472 0.013695126 4294633450 -0.26223198 -0.96035367 0.094631746 0.010745365
0.55240095 -0.051959567 0.01310507 4294108905 0.12588419 -0.98904383 0.077106349 0.0068739266
0.56126475 -0.051740248 0.013666157 4293912554 0.24805564 -0.96659303 0.064547859 0.0057183383
0.56235635 -0.0514827 0.013699019 4293912556 0.26451451 -0.96220416 0.064770713 0.0061082765
0.56452101 -0.051067207 0.01302187 4293716208 0.30417058 -0.94945163 0.077600777 0.0084312335
0.56606871 -0.051912338 0.013503903 4294504173 0.32304084 -0.9444626 0.060291879 0.0064497553
0.56704283 -0.051633533 0.013582315 4294373871 0.36978593 -0.92668498 0.067182444 0.0061680055
0.56806087 -0.051170498 0.013504619 4294175207 0.36657467 -0.92845112 0.060012795 0.006379595
0.57271308 -0.051524021 0.013866385 4294046701 0.45264333 -0.88886684 0.070922293 0.0061507225
0.57413411 -0.051280156 0.013713615 4294639605 0.4667595 -0.88143957 0.072110794 0.0047800569
0.51594424 -0.050142638 0.013029902 4294565834 -0.75679082 -0.6282981 0.18030311 0.015601117
0.5222683 -0.050244275 0.013156913 4294835963 -0.6347571 -0.75814414 0.149335 0.012201091
0.52334833 -0.050735887 0.013048684 4294901497 -0.61370683 -0.77536386 0.14891246 0.012536515
0.52721608 -0.050932389 0.013059152 4294901753 -0.56209004 -0.81524795 0.139376 0.0093220174
0.52918994 -0.050132263 0.013902968 4293715697 -0.52907759 -0.84104633 0.1127744 0.006864476
0.53065956 -0.050424501 0.01317911 4293978343 -0.47172508 -0.87220794 0.12933964 0.010060538
0.5321911 -0.050765239 0.013991982 4294044392 -0.42618319 -0.89783829 0.11069962 0.0074481494
0.53348953 -0.050299138 0.013806 4293320164 -0.34500864 -0.93287879 0.10347056 0.013833245
0.53492379 -0.050933853 0.013680221 4293714399 -0.31431764 -0.94327337 0.10695701 0.013400909
0.56065792 -0.050367858 0.013809142 4292137681 0.39927259 -0.91478348 0.061259504 0.0061252369
0.56236547 -0.050126381 0.013825051 4292269526 0.42121682 -0.9045679 0.065827779 0.0060287206
0.56601328 -0.050553519 0.013402473 4293781744 0.3309162 -0.94147247 0.064219669 0.0070756031
0.56701308 -0.050044905 0.013767818 4293650161 0.34927288 -0.9353447 0.056024447 0.0068837339
0.57042634 -0.050054964 0.013901331 4294371564 0.41666844 -0.90749699 0.053261112 0.0059380308
0.57490444 -0.050265208 0.013752135 4293652978 0.4971233 -0.86494482 0.068839021 0.0059459824
0.51524645 -0.049157601 0.013804909 4294564294 -0.77512336 -0.60976928 0.16542441 0.01319883
0.52008688 -0.049261514 0.013532909 4294901501 -0.67024446 -0.727709 0.14564401 0.011454443
0.52104878 -0.049818456 0.01357479 4294901501 -0.65279114 -0.74363941 0.14444456 0.011527909
0.52257884 -0.049355876 0.013298174 4294835957 -0.64709431 -0.75010127 0.1364444 0.0086814314
0.52535439 -0.049368057 0.013805438 4294901494 -0.60927951 -0.78120887 0.1359825 0.0088255145
0.52832836 -0.049604438 0.013285689 4292728023 -0.54604441 -0.82782191 0.12863286 0.0099335462
0.53007996 -0.049563613 0.01368748 4293650655 -0.46081802 -0.87882495 0.1237477 0.010156863
0.56335199 -0.049466353 0.013753704 4292137685 0.43158901 -0.89969158 0.065467618 0.0060325926
0.56825864 -0.049476083 0.013195812 4293780978 0.38069347 -0.92289984 0.057693485 0.0075978898
0.57188904 -0.04938655 0.013770804 4293779945 0.44949377 -0.89169055 0.053323455 0.0058533568
0.57516325 -0.049627274 0.013004616 4292666093 0.52088588 -0.85041118 0.074018858 0.0072706309
0.57671022 -0.04938864 0.013775588 4293653232 0.52433676 -0.84857363 0.070666879 0.0045210356
0.5190286 -0.048989631 0.013359994 4294901500 -0.68495876 -0.71310657 0.14936717 0.010717391
0.52147657 -0.048405681 0.013571091 4294836213 -0.67424262 -0.72700626 0.12984207 0.0069315988
0.52415103 -0.048346564 0.013811665 4294703604 -0.63726455 -0.75777334 0.14026219 0.0092524886
0.56927574 -0.048982341 0.013290575 4293715440 0.4044967 -0.91299474 0.053133447 0.0073855482
0.57103127 -0.048361808 0.013988276 4293518572 0.44526529 -0.89422929 0.04574668 0.0064516542
0.5732215 -0.048673373 0.013773944 4293583079 0.47886151 -0.87624955 0.053650875 0.0062796306
0.57413554 -0.048184253 0.013814117 4293189347 0.50073618 -0.86386919 0.054710802 0.0064389505
0.57799512 -0.048690695 0.013542899 4294243308 0.53755844 -0.84006107 0.072996341 0.0040194108
0.51380944 -0.047209337 0.013575282 4293775551 -0.80390185 -0.56951076 0.17146245 0.01380125
0.51792347 -0.047816608 0.013790319 4294901497 -0.70677209 -0.69253206 0.14447328 0.010054766
0.51901335 -0.047496609 0.013689092 4294901500 -0.70600057 -0.69264597 0.14766446 0.011658669
0.52053571 -0.047971539 0.013227411 4294901494 -0.68499631 -0.71447587 0.14249338 0.009424191
0.522991 -0.047423098 0.013593229 4293980652 -0.66225529 -0.73412412 0.1499324 0.010128899
0.52621949 -0.047199499 0.013262978 4292991962 -0.52269971 -0.83939904 0.14897759 0.017017202
0.56591249 -0.047978271 0.01318079 4292072147 0.46962979 -0.8798331 0.073085472 0.0072362968
0.56764305 -0.047486395 0.013430356 4292203732 0.48096281 -0.87400407 0.069222048 0.0064757215
0.57258976 -0.047699228 0.013551723 4293321191 0.47736037 -0.87740088 0.047904082 0.0071343621
0.57577372 -0.047310624 0.013602871 4293057760 0.53314734 -0.84420878 0.055366874 0.0071049724
0.57797277 -0.047710981 0.013425672 4292927196 0.57484031 -0.8151713 0.071094558 0.0053193262
0.57914603 -0.047470327 0.013141064 4293454053 0.56828135 -0.81894636 0.079895541 0.0057787374
0.51975304 -0.046693996 0.013367981 4294769140 -0.70814967 -0.69242662 0.13809182 0.0080494639
0.52405715 -0.046472646 0.013453422 4292664023 -0.58345044 -0.79754931 0.15329975 0.018559102
0.52953655 -0.046307258 0.013708804 4292926425 -0.43381745 -0.89602625 0.094548188 0.011598523
0.5692271 -0.046683885 0.013421647 4292006355 0.50078255 -0.86294365 0.067417033 0.0059119561
0.57049811 -0.04610749 0.013535786 4291874769 0.51366913 -0.85553151 0.06488356 0.005749424
0.57469809 -0.046325114 0.013968442 4292992481 0.52761179 -0.84846926 0.0415411 0.0061562406
0.57715702 -0.046431158 0.013498116 4292926176 0.56557697 -0.8227185 0.057070393 0.0068009375
0.57898146 -0.046772201 0.013801807 4292729301 0.59463227 -0.801193 0.067098357 0.0052960548
0.58007967 -0.046331529 0.013679828 4293059294 0.60065836 -0.79632652 0.071229488 0.0050876527
0.51244438 -0.045172375 0.013279675 4292725693 -0.82923275 -0.52784634 0.18371525 0.015568767
0.51572204 -0.045290887 0.013585294 4294638323 -0.7545929 -0.63840282 0.1517611 0.011746561
0.51837307 -0.045001365 0.013731755 4294045167 -0.73900318 -0.65971935 0.13654537 0.0085478937
0.52301389 -0.045688804 0.013643486 4292532436 -0.62859672 -0.76416034 0.14465538 0.015036361
0.52777249 -0.045003705 0.013897583 4292859859 -0.46902728 -0.87889713 0.086909838 0.010155369
0.56752735 -0.045274381 0.013228231 4291611854 0.56448871 -0.82347775 0.056893878 0.010720221
0.57167113 -0.045793969 0.01360095 4291874769 0.5245207 -0.8489362 0.064694144 0.0059639523
0.57323325 -0.045198731 0.013800787 4291874771 0.5423466 -0.83811426 0.058521092 0.0055980827
0.57622302 -0.04523221 0.013756102 4292401633 0.56134051 -0.82645059 0.043314975 0.0063510654
0.51989186 -0.044469569 0.013281994 4293387736 -0.73082793 -0.66351098 0.16013679 0.0091414955
0.52199388 -0.044720531 0.013711131 4292203214 -0.66746503 -0.7319268 0.13701716 0.012593381
0.57436252 -0.044512775 0.01387263 4291809233 0.56018084 -0.82648742 0.0558208 0.0051979907
0.57972765 -0.044387888 0.013976425 4292531670 0.62882054 -0.77532238 0.058821686 0.0058980947
0.5822075 -0.0442621 0.01312355 4292139227 0.64997423 -0.75557834 0.081454493 0.0061242245
0.58324111 -0.044589151 0.013591578 4292796124 0.65374893 -0.75340331 0.070680335 0.0073737963
0.58406264 -0.044407487 0.013796045 4292401873 0.664482 -0.74409449 0.069188625 0.0077493172
0.51148129 -0.043291025 0.013797053 4292592825 -0.8577224 -0.48331487 0.17526834 0.013785318
0.51604867 -0.043589108 0.013406471 4294570222 -0.78037757 -0.60463446 0.15946189 0.011123882
0.51737809 -0.043858152 0.01367136 4293913581 -0.75984091 -0.63408196 0.14346422 0.0087010544
0.57637823 -0.043305069 0.013366399 4291808462 0.58920074 -0.80537969 0.06485521 0.0075686136
0.57819426 -0.043863468 0.013514922 4292335579 0.60190445 -0.79715544 0.047479864 0.0070946272
0.57901913 -0.043378819 0.013706354 4292204248 0.616436 -0.78614682 0.044496551 0.0065861102
0.58101994 -0.043291967 0.013521066 4292335058 0.65791672 -0.75078201 0.058923844 0.0064981896
0.51379848 -0.042724408 0.013636894 4294438886 -0.79783499 -0.58209872 0.15690908 0.012488204
0.52097231 -0.042886354 0.013631277 4292005585 -0.65287435 -0.74266922 0.14898859 0.01967084
0.5753113 -0.042517006 0.013463754 4291414473 0.65542454 -0.7520684 0.069367126 0.010293989
0.577393 -0.042292796 0.013742097 4291480269 0.60836422 -0.79179841 0.054297466 0.0060968073
0.58013117 -0.042636231 0.013231986 4292072918 0.64034277 -0.76610035 0.05523929 0.0077827573
0.5820955 -0.042294361 0.013412352 4292006604 0.68053478 -0.73015052 0.061259259 0.0070125107
0.58407456 -0.042304631 0.013728445 4291876051 0.69310308 -0.71680504 0.076149575 0.0049689179
0.51315886 -0.041807782 0.013850673 4293847261 -0.81207913 -0.56167018 0.15828501 0.01209405
0.51797885 -0.041133206 0.01383018 4292072914 -0.76204818 -0.63151783 0.14306557 0.008519954
0.51972997 -0.041859083 0.013712046 4291612110 -0.70393491 -0.69601095 0.14157803 0.014975525
0.57644886 -0.041245278 0.01349739 4291283144 0.67255265 -0.73690581 0.068138555 0.0098271202
0.57825929 -0.041372854 0.01371439 4291414990 0.62701827 -0.77717328 0.053385004 0.0064098239
0.58143932 -0.041537352 0.013574472 4291810001 0.66847563 -0.7421329 0.048777808 0.006721952
0.58317542 -0.041316301 0.013918593 4292006348 0.70641434 -0.70507389 0.062045906 0.007036597
0.50993115 -0.040239792 0.013161379 4291346096 -0.89491343 -0.40230045 0.19309132 0.020285763
0.51221561 -0.040475193 0.013415115 4293649625 -0.82931542 -0.53263777 0.16891728 0.01564437
0.51359087 -0.040142972 0.013868972 4294369496 -0.83587712 -0.52549213 0.15864269 0.011064539
0.51466787 -0.040766802 0.013604048 4293386974 -0.81506872 -0.55742395 0.15792879 0.010913799
0.51854235 -0.040755376 0.013392942 4291349706 -0.73011386 -0.66610223 0.1524522 0.015450748
0.57911265 -0.040427703 0.013197058 4291283148 0.64767009 -0.75967854 0.05841374 0.0094490889
0.58227229 -0.040624011 0.013622593 4291744208 0.686836 -0.72537988 0.045612052 0.0068213143
0.5844028 -0.040668193 0.013656101 4291809483 0.72310412 -0.68721044 0.069730528 0.0062140897
0.5115785 -0.039248466 0.013882645 4293124565 -0.8480829 -0.50443828 0.16216499 0.013434418
0.51634991 -0.039979327 0.013156688 4292401616 -0.7941612 -0.58342701 0.17006157 0.010745475
0.51761913 -0.039993227 0.013079186 4291152841 -0.74918121 -0.64296478 0.15913488 0.016143965
0.57838762 -0.03928031 0.013066563 4291217090 0.71480089 -0.69502491 0.077460684 0.0099039916
0.58005196 -0.03964543 0.013621959 4291085512 0.66632599 -0.74396992 0.050186139 0.0087974211
0.58323252 -0.039552242 0.013496681 4291612622 0.70919514 -0.70358014 0.044915684 0.0071268333
0.5851047 -0.039311729 0.013280826 4291809225 0.75007236 -0.65814656 0.065074138 0.0072500072
0.5860796 -0.039758574 0.013227443 4291481802 0.74618995 -0.66000462 0.087146342 0.0061293328
0.5126096 -0.038308423 0.013987765 4293908692 -0.86028445 -0.48303023 0.16307215 0.010974391
0.51570535 -0.038957719 0.013283253 4292269774 -0.80623257 -0.56782299 0.16603039 0.010583285
0.58159256 -0.038563065 0.013110719 4291019975 0.70404869 -0.70786679 0.056922358 0.0096907262
0.58570826 -0.038609914 0.01341619 4291611846 0.76374686 -0.64228654 0.06448818 0.0072970325
0.50881165 -0.037889387 0.013097195 4291082147 -0.91644835 -0.34796643 0.19759005 0.021266002
0.51066291 -0.037681803 0.013355682 4292860371 -0.86476505 -0.46892333 0.1797007 0.016467875
0.51201642 -0.03719138 0.013787692 4292925911 -0.87388271 -0.45686105 0.1661538 0.011886988
0.51309013 -0.037391789 0.013769206 4292138190 -0.84907186 -0.50387365 0.15870853 0.0087281959
0.51486337 -0.037600674 0.013190273 4291875530 -0.82207704 -0.54379517 0.16874894 0.011683282
0.51654047 -0.037807982 0.013058485 4291085759 -0.77271324 -0.61524445 0.15616848 0.015497816
0.57826859 -0.037514951 0.013482029 4291019968 0.77368253 -0.63150448 0.05116244 0.0085817855
0.58010858 -0.037270386 0.013409026 4291019968 0.74392056 -0.66474551 0.068525538 0.0075645573
0.58309793 -0.037488528 0.013572752 4290954693 0.73354489 -0.6780616 0.046308886 0.0074542495
0.58511287 -0.037450925 0.013391624 4291349450 0.75356144 -0.65585279 0.044747915 0.0076776645
0.51006722 -0.036581933 0.01347484 4292531923 -0.87862182 -0.44210076 0.18047328 0.016287655
0.51601702 -0.03645369 0.013076111 4291019968 -0.79620028 -0.58605701 0.15034072 0.014917586
0.58604372 -0.036339462 0.013527711 4291283657 0.77501577 -0.63028139 0.04578077 0.007144155
0.58726597 -0.036531724 0.013218461 4291414726 0.79725611 -0.60009241 0.065359391 0.0063843667
0.5080663 -0.035425059 0.013759224 4290554518 -0.93512589 -0.30232275 0.1847717 0.01447884
0.5117566 -0.035566319 0.013769872 4292071373 -0.8758499 -0.45347413 0.16507044 0.0088907946
0.58003145 -0.035471316 0.013233263 4291019711 0.79947501 -0.5982464 0.054231055 0.0087256748
0.58133799 -0.035576206 0.013052288 4290888640 0.76822448 -0.63552856 0.077036083 0.010153089
0.58466148 -0.035521485 0.013101656 4290757054 0.76956564 -0.63672644 0.048458714 0.0085651278
0.58749288 -0.035394713 0.013301222 4291283140 0.80387956 -0.59208053 0.056730017 0.006485092
0.59079832 -0.035355698 0.013834467 4290757826 0.84882092 -0.52292639 0.077788323 0.0086603751
0.50902677 -0.034482419 0.013203208 4292202184 -0.89859921 -0.39563823 0.18971014 0.017811101
0.51138568 -0.034026954 0.013945016 4291546312 -0.88121426 -0.44441435 0.16111304 0.0050328053
0.51321292 -0.034360215 0.013136229 4291414467 -0.86129034 -0.47568575 0.17861144 0.012401061
0.5807125 -0.03463266 0.013463877 4291085504 0.80423129 -0.59224254 0.049608361 0.0061991634
0.58234203 -0.034441378 0.013228244 4290625728 0.78476161 -0.61505395 0.076536432 0.010088871
0.58574247 -0.034217559 0.013182892 4290756796 0.79294974 -0.60762727 0.044941746 0.0071548447
0.58843344 -0.034501798 0.013286106 4291151809 0.82289302 -0.56456423 0.064142846 0.0047393795
0.50810158 -0.033984385 0.01350667 4291279790 -0.92360598 -0.33220592 0.19128835 0.017021142
0.51403427 -0.033751912 0.013304191 4290428092 -0.82118964 -0.54976296 0.15299767 0.016452949
0.58158541 -0.033455379 0.013611041 4290888124 0.80717319 -0.58834958 0.048129074 0.005158239
0.58370894 -0.033366323 0.013310784 4290690748 0.80288291 -0.59132612 0.075581178 0.010858227
0.5864318 -0.033190679 0.0132741 4290494138 0.80588818 -0.59045792 0.043630946 0.00747415
0.58861053 -0.033620249 0.013107057 4291085760 0.82698566 -0.55931151 0.05714326 0.0058793561
0.50649911 -0.032608598 0.013224232 4290225552 -0.93839765 -0.26693094 0.2194487 0.020259501
0.51071048 -0.032908734 0.013125418 4291413955 -0.88677078 -0.42475241 0.1822717 0.0091527235
0.51270032 -0.032950792 0.013438315 4290559161 -0.84375876 -0.51029116 0.16635549 0.016058676
0.58451068 -0.032430999 0.01334341 4290625210 0.81554836 -0.57369936 0.075829327 0.010745064
0.58699936 -0.032304429 0.013160284 4290428348 0.81852943 -0.57253909 0.046996303 0.0076694828
0.58949071 -0.032477152 0.013236325 4291151297 0.84564233 -0.52994627 0.063609257 0.003625364
0.59182382 -0.032831717 0.013908429 4290363323 0.86973661 -0.48721382 0.078619316 0.0092027066
0.50626439 -0.031669863 0.013853758 4289962377 -0.94560325 -0.25258562 0.20502445 0.01675955
0.50934517 -0.031450409 0.013443634 4291413957 -0.91375953 -0.36438403 0.17963253 0.012048368
0.58518004 -0.031588435 0.013029043 4290493624 0.8289333 -0.55342734 0.081166163 0.013025531
0.58773243 -0.031379759 0.013187928 4290362555 0.8305161 -0.55475909 0.04985543 0.0085852621
0.58976132 -0.031604536 0.013276306 4290888383 0.85327482 -0.51789176 0.060912456 0.0044513168
0.50605279 -0.030670956 0.013534439 4289763975 -0.94611335 -0.24139835 0.21586221 0.019290054
0.50752896 -0.030798139 0.013751313 4291216576 -0.93073499 -0.31440532 0.18676649 0.016261611
0.51149374 -0.030180573 0.013552947 4290625463 -0.88855839 -0.42489791 0.17299081 0.013621731
0.51444781 -0.030093944 0.013606349 4290689721 -0.84879458 -0.4938755 0.18877169 0.019057248
0.58597898 -0.030495368 0.013385072 4290493624 0.84257299 -0.53387755 0.071032375 0.010573226
0.58879644 -0.030444007 0.013128319 4290493624 0.84506291 -0.53179228 0.055367321 0.0083883237
0.59050864 -0.030749235 0.013295582 4291480264 0.85769349 -0.51085025 0.05825654 0.004751252
0.50699449 -0.029485455 0.013599316 4291019712 -0.9384442 -0.28867334 0.18971086 0.014176676
0.50893271 -0.029786142 0.013426195 4290953405 -0.91878057 -0.34910962 0.18429528 0.011255361
0.58676803 -0.029604228 0.013482943 4290362296 0.84344304 -0.53217667 0.07342907 0.010614503
0.58972251 -0.029395284 0.013232418 4290362038 0.85787225 -0.51086956 0.055385027 0.0075874305
0.59062612 -0.02941663 0.013148313 4290691005 0.86853248 -0.49089533 0.068359405 0.005728099
0.59227121 -0.029303713 0.013176913 4294768889 0.82824278 -0.55994803 0.021725873 0.0130869
0.50849599 -0.028386118 0.013390453 4290822071 -0.92786372 -0.32088912 0.18999767 0.012762554
0.51045609 -0.028722905 0.013134074 4290297523 -0.90169179 -0.38819331 0.19041529 0.017488362
0.59025073 -0.028126275 0.013091875 4290296245 0.86667168 -0.49499929 0.06209664 0.0094590923
0.59142804 -0.028604373 0.01305674 4290691516 0.87553412 -0.47687438 0.077658817 0.005806101
0.50673026 -0.027357711 0.013723273 4290492593 -0.95061845 -0.24685827 0.18811089 0.013669596
0.50812036 -0.027174029 0.013675189 4290756017 -0.94541287 -0.27273992 0.17834656 0.010992127
0.50940973 -0.027318139 0.013964195 4290165168 -0.91808009 -0.35568219 0.17498311 0.012355776
0.51347286 -0.027224457 0.013161026 4289967789 -0.86453903 -0.4481566 0.22743796 0.023068637
0.59045756 -0.027345134 0.013128541 4290296245 0.87216878 -0.48530629 0.061639842 0.008475312
0.59168184 -0.027674291 0.013204517 4290625981 0.88052833 -0.46822158 0.073746584 0.0081861028
0.50657612 -0.026123121 0.013406236 4289965478 -0.95729721 -0.21351485 0.19491918 0.015272652
0.59228814 -0.02667095 0.013084421 4290494137 0.88202822 -0.46315613 0.086675622 0.0083323466
0.50854599 -0.025807194 0.013477957 4290164401 -0.93133736 -0.31175885 0.18819432 0.015382234
0.58844161 -0.025417589 0.013611358 4290099127 0.8435989 -0.5326193 0.068246469 0.0080058444
0.59084547 -0.025873752 0.013747932 4290098867 0.8825469 -0.46694115 0.055471204 0.0079743965
0.59269816 -0.025652699 0.01303356 4290296759 0.88307476 -0.45993239 0.092958078 0.01072304
0.59420019 -0.025412513 0.013783671 4294046188 0.73227561 -0.67502129 -0.090104692 0.044163119
0.50645947 -0.024833938 0.013864065 4289834152 -0.96264184 -0.19640602 0.18640113 0.013072176
0.50761867 -0.024036208 0.01336978 4289769900 -0.94355172 -0.27154422 0.18966785 0.014765522
0.50864738 -0.02455534 0.0132592 4289703851 -0.92271602 -0.33328339 0.19369423 0.02137992
0.5107398 -0.024989283 0.013440786 4289045926 -0.89434779 -0.42137945 0.15027156 0.019216198
